# .PCD v0.7 - Point Cloud Data
VERSION 0.7
FIELDS x y z rgb
SIZE 4 4 4 4
TYPE F F F F
COUNT 1 1 1 1
WIDTH 1000
HEIGHT 1
POINTS 1000
DATA ascii
0.864953 0.686260 0.010794 258123
0.233825 0.327891 0.894319 11943004
0.739471 0.667417 0.111969 3114518
0.603624 0.501814 0.272855 8669014
0.119649 0.662544 0.546798 3999434
0.760130 0.542693 0.421387 16072602
0.004354 0.652649 0.759521 5896455
0.951847 0.009818 0.373660 11929488
0.196815 0.080039 0.518470 2350220
0.116932 0.835462 0.273359 7273936
0.873007 0.999793 0.255334 634834
0.665978 0.400680 0.585196 2963937
0.976940 0.027155 0.575525 11254849
0.415096 0.864974 0.953543 6183703
0.528345 0.879401 0.273998 2272383
0.430483 0.492750 0.829742 8666773
0.632511 0.820003 0.169991 13293041
0.557138 0.368057 0.744778 5575722
0.989271 0.646762 0.392277 3747436
0.729981 0.461259 0.753447 15147280
0.187130 0.198482 0.491352 16041449
0.181707 0.011230 0.678318 1396904
0.698114 0.790818 0.938881 11971965
0.381670 0.197420 0.560152 9839205
0.660738 0.160315 0.923855 10902661
0.559590 0.541010 0.379404 8383617
0.332116 0.977317 0.040699 1308303
0.942689 0.210594 0.712219 14205964
0.662189 0.659988 0.958365 6580327
0.348804 0.911341 0.811515 8537376
0.603552 0.792447 0.524125 10265935
0.780084 0.381061 0.502045 1847824
0.519479 0.357191 0.185460 3890825
0.262002 0.314714 0.188159 11545958
0.576544 0.245173 0.272291 1419064
0.828923 0.033167 0.799353 2428881
0.211541 0.411274 0.163903 9177310
0.442208 0.113456 0.538386 7396612
0.472052 0.515860 0.822916 5010425
0.083524 0.323153 0.203052 13506597
0.618504 0.149474 0.061522 9511199
0.952916 0.127588 0.288432 12013273
0.330010 0.573777 0.050666 8631548
0.688246 0.029848 0.973400 15099008
0.470830 0.802855 0.003487 11251354
0.384009 0.145902 0.523418 15529178
0.283457 0.905219 0.139812 3516253
0.719662 0.946751 0.622291 16514146
0.843965 0.025815 0.038108 5838803
0.484610 0.773645 0.641563 1483804
0.371375 0.395039 0.742535 4712079
0.981892 0.717117 0.282725 7442706
0.055940 0.537746 0.799891 11235983
0.410265 0.874799 0.045258 13948783
0.279169 0.283446 0.951927 1752204
0.721715 0.568301 0.542786 11802453
0.289924 0.770257 0.412894 5266316
0.690569 0.422623 0.276005 9421464
0.619475 0.457546 0.656343 1719003
0.001371 0.528335 0.755627 6738371
0.002948 0.887867 0.231114 11041418
0.128040 0.956010 0.380869 7879463
0.256230 0.666530 0.137477 9473133
0.376002 0.791121 0.879352 15678741
0.198537 0.243280 0.061658 10061718
0.804301 0.993947 0.470489 897253
0.381693 0.153334 0.378848 2076905
0.517916 0.231485 0.583055 4806450
0.572923 0.485742 0.680113 16496691
0.995224 0.218193 0.552056 9786930
0.730777 0.736661 0.539671 14992010
0.621479 0.699767 0.385489 835294
0.721463 0.974765 0.785262 7525881
0.084419 0.668020 0.292864 803664
0.107141 0.758543 0.214687 10214774
0.086066 0.266927 0.052676 2757877
0.721337 0.389061 0.945131 8687126
0.970313 0.559775 0.347054 5426269
0.892679 0.587182 0.405300 10005673
0.472891 0.113903 0.331804 13648654
0.609872 0.763317 0.364989 287949
0.723026 0.237297 0.232781 13193189
0.707861 0.353839 0.282653 7783700
0.418805 0.949476 0.975278 468460
0.696101 0.407325 0.885265 12546953
0.375024 0.000001 0.486755 7315901
0.428487 0.477732 0.361928 11297709
0.832115 0.645422 0.489650 13475616
0.910261 0.312108 0.495618 13442409
0.195725 0.944749 0.858309 8170933
0.009827 0.342712 0.136576 3087088
0.648983 0.057171 0.041877 15478290
0.862887 0.995074 0.378346 14812849
0.993907 0.299544 0.540033 1252202
0.372081 0.117205 0.526518 14130815
0.034872 0.008086 0.137409 1414719
0.915613 0.382501 0.849613 8814018
0.508698 0.964751 0.166439 14673637
0.887124 0.632438 0.782755 7003416
0.184859 0.326001 0.206196 8708341
0.548384 0.365337 0.043856 16519427
0.190298 0.675691 0.758152 6010549
0.744681 0.170436 0.811713 14554885
0.287502 0.045094 0.938691 5383739
0.733600 0.349834 0.370875 12955522
0.604752 0.495145 0.767142 8839028
0.201144 0.669161 0.464404 1906768
0.969421 0.320325 0.013918 7876499
0.630826 0.493912 0.032278 676833
0.557202 0.693365 0.269709 10705416
0.713914 0.811305 0.718324 12289237
0.536196 0.424735 0.167687 4509347
0.155660 0.214002 0.442430 3381448
0.761863 0.323897 0.365165 5922535
0.687177 0.813971 0.270946 3379139
0.877795 0.064343 0.405175 6552435
0.222186 0.339835 0.176055 10578243
0.322807 0.478167 0.515620 9422279
0.647571 0.523324 0.820661 4124176
0.058671 0.218881 0.303754 7955062
0.948700 0.996401 0.884138 1140877
0.058758 0.304216 0.956756 3869345
0.165128 0.330319 0.216204 6757277
0.536240 0.286664 0.889598 11311902
0.687317 0.758390 0.008434 3853759
0.251241 0.210598 0.165510 15186634
0.968597 0.256608 0.169072 13946357
0.753077 0.041490 0.218763 15802860
0.870388 0.574941 0.300499 14918896
0.018971 0.773202 0.713967 5928294
0.834666 0.738440 0.159970 10133967
0.147833 0.332419 0.486403 8384999
0.879925 0.653248 0.227077 3245370
0.407135 0.505261 0.011035 12169295
0.371858 0.501238 0.598562 14188083
0.358498 0.513472 0.417495 10506618
0.358185 0.807349 0.794902 10635864
0.630628 0.995943 0.411043 7004358
0.236790 0.979527 0.910244 12964647
0.810565 0.908658 0.983949 2915272
0.486524 0.859202 0.173192 11871812
0.968769 0.430579 0.426372 11553427
0.873729 0.337215 0.482727 7731444
0.282566 0.591817 0.068514 14426533
0.910243 0.794242 0.016557 14638767
0.694613 0.615374 0.865792 11071312
0.430313 0.106240 0.461966 5596055
0.156495 0.230272 0.322141 8203098
0.141740 0.291660 0.574913 7883524
0.390869 0.217820 0.064086 15399159
0.666438 0.905705 0.231052 16655397
0.600182 0.874039 0.635969 1255611
0.157234 0.345307 0.639818 6969251
0.800006 0.755885 0.801341 16149250
0.932260 0.656216 0.661932 16638603
0.913480 0.771834 0.905579 15347805
0.185243 0.702329 0.274802 156299
0.804152 0.191621 0.040990 7448589
0.092230 0.639833 0.522609 7100243
0.560243 0.464771 0.551645 8642955
0.844771 0.503465 0.142543 12821439
0.363535 0.486034 0.760845 1107511
0.819685 0.767889 0.274308 644836
0.022267 0.999980 0.233214 460749
0.146966 0.007366 0.513650 2120509
0.950235 0.183703 0.653190 1208796
0.760413 0.974986 0.059092 11975383
0.963592 0.198327 0.224252 6085051
0.154677 0.259957 0.237481 3824737
0.058663 0.732492 0.327365 1024084
0.037301 0.655454 0.640988 10092148
0.048619 0.568537 0.521380 13836422
0.927070 0.176143 0.709404 3404058
0.695371 0.116008 0.035602 13385532
0.280243 0.483489 0.050872 14927073
0.711298 0.170378 0.505850 14804081
0.701521 0.858941 0.695626 7977724
0.991550 0.279568 0.417244 12054470
0.296742 0.926677 0.313145 4463364
0.642793 0.409337 0.658153 10751982
0.355510 0.520087 0.287811 4719929
0.711011 0.200457 0.962259 9011058
0.153200 0.216844 0.319310 8061945
0.081533 0.444749 0.034110 4329338
0.726359 0.202215 0.863919 4374411
0.193056 0.647494 0.397580 2804571
0.818426 0.407960 0.761882 3664206
0.332621 0.269476 0.959338 6506429
0.378715 0.982209 0.100997 4800048
0.981386 0.209210 0.432758 7313584
0.771944 0.926954 0.846489 7975003
0.839080 0.868834 0.804125 13047044
0.872568 0.238957 0.645759 16408373
0.253004 0.535648 0.708630 11342026
0.262585 0.285682 0.604304 13737242
0.968425 0.162701 0.191441 8653914
0.635393 0.647954 0.414847 3765335
0.790684 0.226660 0.668537 5341929
0.312312 0.560894 0.678040 4545840
0.135165 0.050022 0.125584 11936877
0.392048 0.817056 0.202766 1744834
0.884933 0.571014 0.199130 13795365
0.235808 0.065838 0.522464 3512363
0.828807 0.195860 0.736628 12549447
0.076781 0.113820 0.596787 7721112
0.764324 0.621055 0.953104 10594591
0.451125 0.772856 0.261244 14861846
0.953368 0.233828 0.678605 12598089
0.474076 0.326660 0.317798 8780061
0.133661 0.668370 0.902589 6707065
0.688150 0.206167 0.786239 2733362
0.650815 0.361055 0.775450 4486010
0.024117 0.462589 0.092245 5508719
0.230453 0.452932 0.138727 8506612
0.798320 0.538733 0.871871 4893954
0.221527 0.513463 0.072755 14077796
0.847620 0.225469 0.387490 5931871
0.676715 0.459959 0.278279 7174501
0.268748 0.256864 0.254727 2894287
0.804713 0.214443 0.247969 2526724
0.021694 0.310760 0.445434 4237718
0.521729 0.084006 0.796585 15807436
0.752731 0.176076 0.656958 4615612
0.497711 0.524354 0.839256 15654148
0.964618 0.985470 0.908289 14263452
0.311427 0.898379 0.115284 15045342
0.334220 0.550188 0.766316 5420730
0.257425 0.831077 0.723444 12536217
0.537442 0.878319 0.038490 8237278
0.930001 0.748492 0.482267 13068421
0.213294 0.705353 0.793547 7712467
0.699302 0.700929 0.618492 14884737
0.227718 0.347158 0.029858 9229074
0.886461 0.148211 0.262109 12783928
0.712191 0.829597 0.023952 13524624
0.956087 0.102622 0.820339 1421090
0.410393 0.687277 0.442014 13803074
0.303468 0.925260 0.916721 15480056
0.258237 0.805907 0.368716 8453056
0.513171 0.185816 0.529256 7042369
0.346538 0.585462 0.046323 3296712
0.146407 0.462137 0.280316 4507023
0.860990 0.219300 0.816093 7150547
0.995877 0.123704 0.502613 1805448
0.128736 0.414802 0.910600 254176
0.798470 0.783945 0.004571 6979137
0.492663 0.197561 0.239589 11898300
0.025061 0.931410 0.720141 10865856
0.631190 0.584466 0.337303 5769226
0.220266 0.085576 0.910716 5614586
0.227222 0.795938 0.040524 11736068
0.793778 0.319022 0.870529 7439177
0.251866 0.636552 0.631709 5693434
0.623916 0.226462 0.041759 6559128
0.827090 0.406061 0.946162 10473738
0.225392 0.994097 0.128742 411965
0.310332 0.304208 0.722306 6385423
0.102291 0.291426 0.747196 7457873
0.531421 0.707631 0.720027 4269279
0.656735 0.202355 0.105443 4242158
0.538072 0.288236 0.966749 12937721
0.071902 0.170183 0.373348 8686419
0.436816 0.294976 0.037708 10200249
0.311733 0.309773 0.958425 10279029
0.762767 0.717759 0.295909 14096465
0.283903 0.335937 0.149410 12537463
0.224999 0.512596 0.549195 1160786
0.361929 0.818555 0.138993 8855892
0.334114 0.079241 0.743674 6207122
0.690016 0.551775 0.656235 6617137
0.644739 0.393059 0.579957 5748242
0.981981 0.090728 0.804333 15623025
0.154718 0.115147 0.575569 6137178
0.147681 0.301711 0.758567 16207177
0.341275 0.306692 0.020838 135169
0.039460 0.154787 0.366242 12066141
0.061609 0.003277 0.698182 10540478
0.087167 0.355992 0.229027 4339026
0.863141 0.762804 0.194048 11440901
0.418987 0.210313 0.043652 11183852
0.540381 0.071050 0.699793 15027887
0.751842 0.527622 0.922436 797539
0.245150 0.079466 0.559845 2071219
0.069568 0.425204 0.857026 631788
0.111153 0.152472 0.375557 14179569
0.162052 0.176898 0.736980 495404
0.545315 0.418402 0.154521 9581577
0.451140 0.875148 0.582040 2706079
0.659610 0.967698 0.274787 3227664
0.314085 0.697666 0.502689 3005398
0.395859 0.997483 0.964786 742891
0.944926 0.368800 0.410212 6618433
0.391911 0.167427 0.198611 12365617
0.232606 0.051664 0.214762 899123
0.064907 0.856951 0.631724 354490
0.051482 0.106480 0.604720 6080266
0.389445 0.652160 0.572759 11240548
0.045546 0.971408 0.723665 12926130
0.094138 0.878164 0.515304 9779291
0.128400 0.079435 0.452402 16490500
0.708572 0.617673 0.362362 5809194
0.129824 0.919512 0.418820 12544015
0.893082 0.545314 0.213613 15104587
0.721086 0.662177 0.548896 9153173
0.406584 0.407499 0.169704 275189
0.166225 0.544140 0.033112 12037219
0.173709 0.028638 0.893449 902409
0.215600 0.218542 0.810726 9619847
0.371543 0.378086 0.041708 3796138
0.567525 0.900642 0.475020 7446733
0.818615 0.859212 0.438654 9482838
0.703939 0.893841 0.036988 12190214
0.331643 0.571332 0.602351 13243404
0.152108 0.370817 0.572479 15068620
0.343484 0.401492 0.098095 252067
0.591484 0.134235 0.547423 14110779
0.017917 0.312383 0.132723 6174115
0.159222 0.571793 0.756456 10612704
0.733926 0.864914 0.100943 6800522
0.892605 0.689889 0.264650 14564106
0.825622 0.096714 0.116901 11359434
0.367056 0.877017 0.821746 11223780
0.716091 0.008325 0.182830 156864
0.763264 0.965317 0.433849 12036007
0.730118 0.671324 0.489350 15452343
0.028646 0.318134 0.874375 10516426
0.354622 0.722579 0.182937 11105952
0.858959 0.815522 0.124364 12897435
0.884909 0.550091 0.252600 13181322
0.248027 0.980482 0.304561 13343821
0.897230 0.329206 0.827385 12444090
0.108168 0.568466 0.454481 11936008
0.563401 0.680903 0.702014 89682
0.971912 0.429609 0.599930 578253
0.144150 0.164591 0.572302 5821910
0.131947 0.021477 0.915398 12954173
0.092092 0.090327 0.918736 653898
0.962987 0.871213 0.100922 16171079
0.199928 0.871532 0.301253 726181
0.735546 0.272565 0.894345 5783392
0.709196 0.119039 0.291962 12148433
0.357598 0.745296 0.045683 12956830
0.380785 0.890164 0.271775 7327291
0.871527 0.858315 0.779841 5312420
0.393254 0.733484 0.739369 4644173
0.331167 0.471466 0.382252 4521140
0.799569 0.016756 0.405613 12710913
0.145699 0.531602 0.556054 2838902
0.655844 0.293909 0.649195 2299862
0.999051 0.734796 0.262667 12466773
0.037813 0.112179 0.361115 850043
0.341839 0.434258 0.509317 4990944
0.517048 0.286204 0.889847 12368523
0.894370 0.837310 0.792201 8008129
0.062405 0.251869 0.027099 5603794
0.375624 0.310287 0.029672 5634789
0.326624 0.709603 0.817955 7094313
0.106801 0.649742 0.718326 3754518
0.689655 0.487523 0.981699 3632369
0.320485 0.169816 0.730010 2827979
0.883992 0.408391 0.795407 7864556
0.520007 0.562131 0.186189 12762120
0.916567 0.769956 0.016626 9754019
0.505929 0.514993 0.723308 9267400
0.578173 0.427778 0.384909 5575800
0.414062 0.800784 0.424512 1477271
0.707959 0.484924 0.232751 4089605
0.319930 0.646959 0.631716 15830328
0.624285 0.869621 0.599752 11221196
0.727708 0.894015 0.885211 621265
0.104595 0.048383 0.673023 11862913
0.608697 0.345622 0.541930 11490338
0.879822 0.867938 0.232370 2033138
0.498005 0.509926 0.723012 13433425
0.144483 0.128543 0.115050 7419595
0.349856 0.680981 0.573099 287068
0.289391 0.319556 0.651245 12117875
0.314506 0.749934 0.145234 4962013
0.784837 0.081801 0.002048 15290120
0.219824 0.633590 0.056230 6086470
0.854519 0.294990 0.799776 4683480
0.166059 0.025479 0.131512 16620758
0.580621 0.089619 0.825819 14289792
0.981728 0.250901 0.349306 12616949
0.464076 0.533606 0.136711 11627042
0.686624 0.452001 0.759634 4595096
0.568182 0.553488 0.037417 821998
0.964412 0.534242 0.478488 407756
0.237787 0.383371 0.992436 16016644
0.714474 0.376914 0.506286 12462348
0.509209 0.840410 0.795722 13746628
0.172263 0.471914 0.224111 11293334
0.995617 0.135027 0.559395 15959310
0.008578 0.037701 0.101679 6481361
0.618164 0.513866 0.391784 8298183
0.066283 0.378857 0.509373 397523
0.054560 0.001310 0.784299 10210778
0.789093 0.559431 0.453607 14287652
0.967770 0.098187 0.592391 14624854
0.853754 0.610336 0.480583 2421804
0.281476 0.562358 0.185173 15654285
0.466583 0.083272 0.496788 2660034
0.988185 0.437555 0.457542 14594595
0.993205 0.875300 0.142036 11952315
0.618890 0.686758 0.244430 10776551
0.980869 0.653778 0.000385 615106
0.102980 0.774314 0.370357 214268
0.258541 0.152999 0.574452 1891952
0.634691 0.789946 0.398673 12721019
0.152583 0.302912 0.898848 16647101
0.291126 0.695068 0.081226 12498291
0.775009 0.211699 0.398924 513706
0.231590 0.874756 0.473512 5515703
0.544587 0.468944 0.645466 16069326
0.820996 0.276468 0.515671 6476637
0.093697 0.295183 0.234393 13110807
0.394272 0.417794 0.905881 6811681
0.064530 0.585215 0.098432 6384967
0.795137 0.109092 0.159819 10930509
0.596612 0.651399 0.649645 300244
0.785427 0.986902 0.104704 2808886
0.435302 0.529916 0.919768 2593354
0.738677 0.987480 0.990818 2632876
0.323260 0.559526 0.621856 16491674
0.615478 0.037904 0.307123 2561937
0.598823 0.629224 0.123575 15841230
0.656712 0.175067 0.237597 4033118
0.417408 0.135629 0.718217 15568728
0.796591 0.488521 0.462288 13976389
0.969910 0.065772 0.199306 4005123
0.469660 0.893403 0.093260 2653837
0.794592 0.300809 0.738147 15553687
0.269959 0.366846 0.316585 4395103
0.067924 0.101007 0.703640 11927069
0.100231 0.428960 0.815655 12478124
0.450700 0.475562 0.214520 14208439
0.841935 0.975852 0.296222 13304527
0.472565 0.674638 0.521629 4249315
0.009853 0.675230 0.668053 8109818
0.486648 0.922991 0.643033 14599814
0.989885 0.618613 0.351650 10648059
0.635406 0.029685 0.333553 364730
0.281965 0.702642 0.490404 12838484
0.445618 0.497559 0.185785 496313
0.105527 0.309464 0.562890 7848307
0.191649 0.521025 0.183700 12408540
0.041632 0.898781 0.477961 287142
0.164704 0.907622 0.576052 6572719
0.308048 0.823858 0.163691 13810808
0.134075 0.425690 0.666662 407713
0.075176 0.222148 0.770808 7942370
0.961628 0.144512 0.848370 6738398
0.106521 0.288063 0.318009 12455816
0.686887 0.280021 0.364105 4978832
0.758336 0.109551 0.953027 9113044
0.847013 0.237142 0.394181 12494418
0.652172 0.782676 0.748863 15401625
0.685874 0.026354 0.977156 5299345
0.085844 0.142586 0.118625 2917888
0.516975 0.280573 0.869066 2252811
0.705944 0.482412 0.683154 13838702
0.867950 0.400360 0.774886 10071985
0.354182 0.746281 0.491360 2865835
0.422312 0.443737 0.336487 14873659
0.719227 0.133270 0.986094 10943679
0.184174 0.634864 0.892438 776795
0.418044 0.127239 0.637539 5380740
0.461467 0.067121 0.772944 16445209
0.647410 0.055346 0.425918 4712490
0.069406 0.031354 0.174558 8136631
0.678010 0.535073 0.505248 11636185
0.372152 0.342572 0.075234 11139067
0.296327 0.585905 0.722335 8098776
0.125022 0.904386 0.387871 15937748
0.208854 0.428026 0.711199 2745460
0.962979 0.545303 0.955029 15366633
0.906627 0.357668 0.760937 3886553
0.454484 0.261413 0.670640 13240653
0.097719 0.627087 0.877983 12521802
0.014136 0.187161 0.471505 7234621
0.230506 0.403923 0.256338 10278571
0.390972 0.594475 0.831667 10350871
0.437927 0.493313 0.696997 4521116
0.219265 0.728948 0.974334 10446854
0.931542 0.571084 0.019123 5461677
0.981530 0.965045 0.870159 11025132
0.787887 0.407287 0.887100 4756551
0.154856 0.573508 0.688759 13288350
0.114551 0.007723 0.134225 2075360
0.598169 0.501076 0.217196 12364941
0.928595 0.712153 0.117352 15211618
0.411624 0.173396 0.796314 9441012
0.728709 0.626869 0.990478 1786733
0.801029 0.665131 0.346364 12763675
0.088050 0.416981 0.343945 2216910
0.992217 0.244539 0.978700 14753266
0.412989 0.336299 0.681304 13994738
0.600618 0.508388 0.924391 4445264
0.155320 0.724400 0.722839 14265607
0.735115 0.522451 0.281694 11337903
0.639961 0.176944 0.115534 3166313
0.364300 0.566001 0.938510 3723579
0.814045 0.029744 0.452637 6007963
0.301010 0.668960 0.994564 1016438
0.886448 0.503257 0.655580 5729956
0.788980 0.706845 0.698816 1078368
0.476988 0.190682 0.548632 759593
0.626371 0.821592 0.297744 15482682
0.552955 0.655433 0.322513 512491
0.149891 0.266574 0.069459 1544508
0.491019 0.816823 0.415151 9797153
0.581521 0.915928 0.683300 1230086
0.210364 0.390897 0.534854 13644355
0.058998 0.200245 0.958261 947922
0.064157 0.222464 0.905078 9286946
0.244558 0.174839 0.612454 5773382
0.594398 0.200092 0.864673 11287878
0.049700 0.101598 0.447247 12840978
0.765347 0.937626 0.997928 5263593
0.730249 0.401205 0.499743 9727847
0.567056 0.354020 0.801349 431809
0.668291 0.579372 0.480118 15725200
0.445922 0.782001 0.461743 5982784
0.069783 0.011196 0.788503 18011
0.364615 0.129005 0.571524 3919260
0.595110 0.751793 0.726328 13542809
0.403901 0.014497 0.589336 5966778
0.034096 0.409347 0.291032 13785544
0.103489 0.269124 0.630090 1444725
0.494357 0.883330 0.485888 9605992
0.044444 0.234319 0.637441 2694023
0.860022 0.221301 0.822012 16573696
0.348316 0.923072 0.036038 1554818
0.279711 0.388545 0.969280 4039621
0.255271 0.134695 0.257224 8625091
0.102676 0.713396 0.141632 11925885
0.665880 0.444153 0.558763 9577298
0.285559 0.141422 0.179573 7679099
0.102211 0.613367 0.234132 606690
0.412202 0.448489 0.765711 8435190
0.197270 0.534255 0.992477 14982484
0.319731 0.422483 0.729262 16279432
0.642314 0.671104 0.112029 8533760
0.938575 0.253942 0.471205 6920886
0.438772 0.751096 0.818641 1831789
0.877407 0.512958 0.018429 7077065
0.171334 0.013454 0.982340 888310
0.227676 0.593037 0.448183 16100233
0.652633 0.117764 0.313500 9493921
0.256661 0.646519 0.548283 15987252
0.859903 0.757774 0.663053 7678143
0.846128 0.085268 0.021935 12259661
0.162182 0.746238 0.467179 9300424
0.470372 0.069464 0.722283 6007038
0.978342 0.239965 0.322508 10284298
0.305718 0.534142 0.362144 6655626
0.714019 0.400912 0.652364 605848
0.484642 0.427079 0.308786 12373608
0.773808 0.219044 0.782912 12891221
0.240903 0.600716 0.502939 11974789
0.327948 0.099318 0.332038 6585025
0.734228 0.679910 0.026522 6001472
0.690200 0.828991 0.764445 9783358
0.126246 0.426377 0.261285 1374681
0.328282 0.964164 0.664639 10645771
0.288188 0.058975 0.703954 5837914
0.357922 0.941998 0.985935 13869455
0.314559 0.698999 0.941561 3975968
0.312581 0.591772 0.736758 8728669
0.831432 0.309518 0.600808 8255387
0.791478 0.966791 0.537732 136405
0.302038 0.628547 0.303130 14071763
0.459642 0.112267 0.862730 14285725
0.660032 0.290809 0.966176 13615791
0.197178 0.479891 0.607854 6727604
0.012217 0.680297 0.741214 10156935
0.175810 0.616615 0.778422 10273345
0.602618 0.792000 0.485742 14849515
0.408359 0.406244 0.110107 13895888
0.912607 0.723010 0.529224 14031468
0.112916 0.729483 0.949030 4633869
0.802785 0.786346 0.872661 1870852
0.682925 0.302653 0.790139 11065997
0.529411 0.056475 0.270990 5491021
0.621997 0.709049 0.475733 13055185
0.851355 0.548049 0.705702 13487618
0.141432 0.799972 0.891138 506580
0.304766 0.794039 0.798876 11909352
0.237873 0.703994 0.522412 7577918
0.606752 0.594540 0.389339 11299473
0.481696 0.948117 0.100222 1748580
0.091233 0.152302 0.813641 11112863
0.275657 0.039101 0.148720 11946657
0.247372 0.485467 0.699329 15705840
0.523078 0.490160 0.642429 12200582
0.530104 0.700429 0.932300 13239373
0.434839 0.766196 0.275682 224716
0.276975 0.663766 0.683578 7258896
0.644091 0.090302 0.005868 15752134
0.867459 0.286651 0.160252 14600435
0.213706 0.265164 0.998409 14215675
0.775183 0.029957 0.199947 9087050
0.521780 0.960618 0.363638 14278170
0.345601 0.843871 0.540448 10329524
0.776429 0.873493 0.377830 2399367
0.245433 0.161078 0.368057 7637698
0.100962 0.579752 0.322680 4636023
0.088728 0.133220 0.104687 9976516
0.718205 0.447198 0.665797 7695473
0.629785 0.629439 0.993575 6250711
0.751691 0.203326 0.470025 7593122
0.578894 0.011521 0.295202 703486
0.174200 0.513197 0.324622 12231204
0.711180 0.910948 0.091133 6914513
0.779211 0.210975 0.412264 16583363
0.107743 0.891675 0.903663 2054221
0.736425 0.082292 0.256917 978834
0.054280 0.223235 0.588443 9771921
0.641263 0.586217 0.378592 4379332
0.423545 0.770206 0.569969 2919559
0.768666 0.933456 0.613966 1884305
0.814496 0.605464 0.409144 12090060
0.119828 0.563690 0.776850 10951306
0.553773 0.454203 0.504441 4162393
0.671663 0.022891 0.021302 9024580
0.437456 0.062532 0.751419 11472347
0.733962 0.883204 0.536917 7835239
0.449926 0.364056 0.731011 6274479
0.473574 0.737500 0.422821 4985979
0.523615 0.653961 0.531069 9070110
0.603004 0.915744 0.943629 7119690
0.212146 0.043233 0.847078 11250253
0.295288 0.054050 0.296751 635186
0.570191 0.240240 0.263813 13217503
0.157387 0.192098 0.102407 15276352
0.595172 0.373240 0.289594 2977297
0.697948 0.709742 0.139496 5826235
0.812052 0.470833 0.877024 12301740
0.344213 0.976173 0.391871 15430154
0.477264 0.044523 0.360639 6688958
0.596239 0.698544 0.291109 10744030
0.344555 0.981723 0.736454 12297953
0.360079 0.978522 0.671070 1625708
0.219073 0.648298 0.994452 1634923
0.273548 0.785547 0.848526 8301504
0.285829 0.409824 0.862132 1148978
0.670843 0.589599 0.916095 2491256
0.327050 0.322716 0.441700 6509092
0.556621 0.110179 0.941792 14289767
0.519112 0.308793 0.397231 3321812
0.594879 0.740746 0.576001 12657346
0.475069 0.676660 0.020291 4517957
0.150552 0.078177 0.195334 6203307
0.185615 0.042712 0.399204 362546
0.817564 0.306512 0.075843 13158966
0.678922 0.757625 0.111337 6033834
0.023061 0.384457 0.879105 3228939
0.231348 0.111109 0.129988 3734038
0.202577 0.084864 0.385041 1780224
0.053343 0.836757 0.283012 16304963
0.847433 0.533417 0.470424 2413376
0.745616 0.841960 0.286318 3675611
0.901169 0.011594 0.074665 13353925
0.750205 0.112698 0.747532 11869508
0.495205 0.203357 0.799416 14806813
0.356245 0.649265 0.053087 13117241
0.941608 0.296939 0.594299 5200342
0.826037 0.378443 0.578678 6860558
0.168778 0.331213 0.997921 12472541
0.798133 0.732849 0.975915 4091444
0.703521 0.629128 0.296164 1208456
0.749183 0.695224 0.273353 8041842
0.054844 0.901380 0.327570 11505412
0.785558 0.092636 0.990273 7814170
0.028995 0.588197 0.494806 8436759
0.137101 0.351607 0.942390 10038554
0.410971 0.431652 0.233947 1856000
0.979473 0.361534 0.385399 2369037
0.838411 0.005475 0.522968 10649253
0.167506 0.001127 0.742130 4297883
0.354868 0.050755 0.113875 726106
0.093580 0.582783 0.045466 5302009
0.734022 0.487250 0.379459 1757853
0.408274 0.899495 0.751644 14564713
0.995689 0.003162 0.680169 10754739
0.464370 0.374612 0.979787 9931846
0.589347 0.201607 0.527798 16111971
0.739545 0.413744 0.953941 11044029
0.273235 0.047962 0.235105 14694619
0.968294 0.278635 0.801529 3354641
0.302877 0.263278 0.486380 13854396
0.181804 0.440174 0.587057 7214278
0.482486 0.208576 0.416964 8808599
0.227371 0.336513 0.996490 14098425
0.891269 0.745781 0.233876 14194645
0.791478 0.986021 0.692128 14235336
0.369087 0.042267 0.426737 6610207
0.577388 0.739914 0.590073 3116533
0.004190 0.690324 0.339865 8909781
0.790659 0.977007 0.817753 1407249
0.704296 0.755036 0.000241 72806
0.717048 0.511705 0.441842 9672722
0.326275 0.957203 0.327582 5237010
0.600607 0.950406 0.076046 3537089
0.110890 0.529151 0.371851 4222851
0.523073 0.389892 0.413656 12160967
0.109674 0.640801 0.748727 13258247
0.054082 0.567045 0.650196 2359473
0.173452 0.673334 0.396349 15708763
0.548352 0.805391 0.617212 8192094
0.912463 0.770357 0.504008 6226112
0.551750 0.682096 0.064821 15001194
0.322671 0.869591 0.273420 4518819
0.973576 0.502284 0.485854 12072504
0.182470 0.549012 0.915966 2827901
0.383788 0.133388 0.003872 9760300
0.131032 0.040714 0.974735 9157354
0.115670 0.134151 0.544201 12469508
0.830475 0.886754 0.118570 13407299
0.505937 0.797597 0.139964 12579675
0.086757 0.287490 0.170021 7201708
0.122408 0.101183 0.386878 13001703
0.064816 0.675651 0.083124 9489061
0.651068 0.145277 0.205235 15789178
0.440894 0.643456 0.770532 5913259
0.179864 0.637839 0.864334 32153
0.507971 0.248453 0.277183 7466683
0.464164 0.378087 0.975847 4918131
0.105884 0.744568 0.551117 2946508
0.973651 0.298106 0.297093 6559681
0.333115 0.658844 0.838163 12843114
0.311599 0.578113 0.142671 4842336
0.290529 0.622421 0.820399 11743951
0.443939 0.817164 0.161039 14788118
0.064725 0.047862 0.364460 9807243
0.185859 0.214572 0.106883 11878120
0.551989 0.957198 0.328144 1619736
0.085341 0.324410 0.365305 15893513
0.746470 0.041897 0.120369 2040850
0.949127 0.809972 0.903155 12376662
0.860368 0.925044 0.481321 9287066
0.337565 0.924019 0.527495 15454991
0.814183 0.474183 0.158249 14136231
0.637067 0.738822 0.606502 7693959
0.598762 0.499858 0.905784 601622
0.738814 0.154668 0.744640 1372020
0.838565 0.488810 0.287893 7268169
0.639788 0.589336 0.498859 8593665
0.416361 0.165358 0.704268 490442
0.867573 0.874431 0.187093 13473812
0.772088 0.411766 0.632022 5899280
0.672902 0.695279 0.391548 6782845
0.564421 0.584790 0.670599 5035765
0.812237 0.804119 0.281118 3391378
0.240496 0.526224 0.005414 12089587
0.342389 0.828019 0.412808 7537148
0.713528 0.164282 0.434672 13506226
0.626515 0.234550 0.460447 3358038
0.477004 0.928882 0.580986 4060054
0.469562 0.346046 0.168334 13374422
0.908410 0.725717 0.688436 3297402
0.247560 0.889922 0.213886 1994487
0.552547 0.017013 0.470570 15755015
0.192800 0.564765 0.175719 13453859
0.711552 0.756014 0.961836 11642767
0.303148 0.665445 0.064228 14498285
0.850175 0.641879 0.316991 10732424
0.313577 0.025966 0.549036 4354418
0.188713 0.411879 0.436550 10047244
0.916725 0.117535 0.849804 6430420
0.078603 0.507947 0.647837 2980061
0.483862 0.039534 0.179657 3575395
0.481972 0.250891 0.005379 8574325
0.531196 0.291570 0.888527 8335572
0.014794 0.730646 0.863447 6618232
0.209366 0.988669 0.595620 14361444
0.549635 0.339196 0.893482 15538297
0.603626 0.984124 0.062288 2724583
0.952052 0.939373 0.224313 15420895
0.164130 0.700628 0.553969 15647846
0.857601 0.231769 0.185266 12834733
0.784036 0.416840 0.365450 9627429
0.779127 0.696045 0.841851 13848747
0.963282 0.932489 0.359187 718027
0.483687 0.328921 0.914129 14446354
0.612974 0.836133 0.409749 4970237
0.709524 0.598485 0.140480 4533393
0.206035 0.462788 0.646262 9761157
0.566394 0.600907 0.222609 5785896
0.013026 0.225705 0.049467 15517778
0.113442 0.105461 0.342567 10238166
0.902412 0.159314 0.403015 4048700
0.750238 0.951673 0.698417 16018270
0.389570 0.563785 0.483802 1594326
0.887343 0.536260 0.231898 11209394
0.534848 0.174533 0.656706 11667184
0.982062 0.929750 0.106856 16105276
0.467042 0.692640 0.418882 11301821
0.994366 0.487576 0.411019 12645509
0.825902 0.192927 0.435184 12167499
0.926844 0.314737 0.702862 2230441
0.447215 0.208604 0.764260 12754981
0.134090 0.094977 0.788620 15553924
0.323083 0.581521 0.757248 12444528
0.163822 0.016292 0.324049 9848166
0.495118 0.842035 0.592062 7868970
0.145814 0.705562 0.826540 5199288
0.281393 0.052411 0.199219 4079653
0.781633 0.694630 0.128539 14915325
0.300488 0.258190 0.525237 10816972
0.228516 0.822223 0.518723 13478111
0.046156 0.166372 0.023809 9068222
0.998947 0.877237 0.585673 4045996
0.754252 0.020333 0.098521 7796128
0.833627 0.034103 0.657463 1906795
0.904726 0.179809 0.279819 13673795
0.636796 0.157729 0.236462 12303967
0.291268 0.206526 0.165292 9677474
0.816001 0.611663 0.825078 10105736
0.754820 0.413309 0.132021 721286
0.967529 0.653476 0.356234 10867931
0.957266 0.285696 0.335500 1425071
0.290294 0.877749 0.559058 14456528
0.486258 0.621328 0.653155 1857831
0.086601 0.134489 0.505073 4967142
0.846837 0.193140 0.940380 6821988
0.428393 0.917571 0.042441 13731101
0.383106 0.085397 0.599646 13181551
0.353928 0.872126 0.149372 11690230
0.173717 0.187550 0.028365 4477113
0.791166 0.854269 0.539992 4147956
0.461449 0.888926 0.021804 137631
0.448633 0.642456 0.305355 255771
0.093143 0.275673 0.246728 1641325
0.663568 0.449024 0.709881 13818029
0.707226 0.932743 0.153923 6948442
0.682453 0.356209 0.425970 7929417
0.287874 0.838871 0.764328 13490058
0.340400 0.977731 0.475004 8414255
0.052915 0.240152 0.918392 4546516
0.552035 0.256637 0.947998 13744008
0.764963 0.623214 0.816555 16170148
0.512297 0.301682 0.247032 9737576
0.357271 0.574210 0.810781 10299169
0.834322 0.048789 0.319289 6665681
0.838197 0.691421 0.315839 384786
0.067728 0.536931 0.359033 9191676
0.290007 0.132495 0.670421 16100054
0.908163 0.360297 0.383620 5252380
0.474903 0.105955 0.937584 2746882
0.138321 0.028910 0.646609 3304671
0.365806 0.811104 0.330810 8330259
0.461714 0.801790 0.254376 10339484
0.590009 0.019716 0.393170 920691
0.503857 0.945503 0.390023 7986473
0.557663 0.124253 0.012971 729933
0.635887 0.578810 0.265816 10819160
0.853481 0.744023 0.126906 7604481
0.560950 0.107319 0.532099 5674234
0.568720 0.377084 0.251377 12308324
0.122214 0.157629 0.821977 14041117
0.931513 0.537104 0.579700 6119087
0.535632 0.411150 0.389334 16097689
0.637006 0.280719 0.496179 15211086
0.246708 0.594401 0.032635 175833
0.821764 0.899599 0.087937 4757235
0.492012 0.600500 0.019128 12797791
0.895459 0.831625 0.374328 15075728
0.163880 0.343612 0.946317 14689432
0.410880 0.365108 0.699531 13539069
0.471330 0.606835 0.428740 5539861
0.810699 0.147270 0.591797 887932
0.299218 0.744068 0.749578 14007952
0.004961 0.189569 0.668824 16116781
0.472112 0.710183 0.401118 1779565
0.648375 0.519405 0.922835 16076921
0.890468 0.099779 0.620676 9732201
0.990861 0.555797 0.125718 6220800
0.471319 0.732459 0.911078 11762308
0.818001 0.004151 0.639356 4078870
0.494767 0.313923 0.912775 10762756
0.487653 0.885811 0.417576 15855130
0.769301 0.187411 0.243994 1322507
0.459304 0.687033 0.321700 14104719
0.019264 0.308602 0.775400 2529645
0.909274 0.700393 0.681012 12670424
0.700512 0.308567 0.589172 9380742
0.490580 0.656588 0.410090 12776927
0.414160 0.889367 0.439865 2702712
0.701988 0.017263 0.553333 1250200
0.796604 0.293265 0.043898 11896821
0.957094 0.714111 0.325163 2481093
0.792482 0.594200 0.254215 9561287
0.255747 0.042566 0.992090 7292510
0.138042 0.184719 0.749989 652963
0.317914 0.099611 0.095167 11980711
0.713534 0.089646 0.119772 7981485
0.085735 0.003990 0.167918 4647826
0.925498 0.281072 0.579498 13577502
0.768724 0.856490 0.069208 3283865
0.167176 0.471909 0.917373 6426341
0.147311 0.027878 0.769562 2648625
0.328647 0.483005 0.384273 5580120
0.670323 0.266648 0.028915 12296663
0.958896 0.336469 0.477882 14661616
0.013123 0.269548 0.443352 16650192
0.414611 0.995880 0.390335 15894579
0.437639 0.968747 0.173252 5685665
0.535374 0.017450 0.470641 762508
0.307760 0.529935 0.203743 6473580
0.064201 0.922376 0.461926 2321320
0.340060 0.236096 0.675628 11259800
0.010369 0.149758 0.723973 11691054
0.240293 0.658805 0.198331 13235127
0.046242 0.363295 0.484593 5449631
0.841548 0.237337 0.933788 2511361
0.025139 0.276131 0.310105 14324703
0.832899 0.305584 0.194722 9135523
0.727969 0.753591 0.289525 15688455
0.723088 0.398218 0.513547 224547
0.509289 0.188439 0.949749 6750737
0.419212 0.543778 0.235128 13557784
0.426750 0.685434 0.625915 607727
0.265924 0.711690 0.364346 9217883
0.112152 0.551041 0.438135 16263547
0.315239 0.099522 0.670818 399605
0.927769 0.229336 0.888635 5392591
0.922943 0.687773 0.763091 1883373
0.729678 0.196298 0.373526 11447502
0.530858 0.788101 0.767837 2707087
0.242803 0.543023 0.359171 3460506
0.593294 0.861807 0.121816 7224047
0.190341 0.755521 0.110926 6617168
0.015457 0.166996 0.037915 10592883
0.639074 0.102861 0.827151 534101
0.315320 0.384824 0.351580 12908294
0.806378 0.217983 0.275249 8796890
0.310877 0.177163 0.613242 6497703
0.725436 0.326700 0.718666 4589953
0.195098 0.722937 0.623183 184625
0.838722 0.072994 0.634348 10242741
0.363183 0.204875 0.367560 2429930
0.780985 0.873519 0.483676 15308828
0.019956 0.970580 0.414002 7985147
0.912569 0.347957 0.794577 3720864
0.616133 0.508148 0.258472 11464033
0.431618 0.637649 0.525425 13823633
0.731622 0.384655 0.583525 13632619
0.828046 0.059888 0.414358 2404200
0.454971 0.309895 0.521185 7468305
0.983463 0.738292 0.938566 9001433
0.494887 0.048714 0.947078 8780468
0.192447 0.133841 0.528475 8875814
0.515350 0.011713 0.496271 16477323
0.819010 0.214380 0.140472 5777288
0.929429 0.973279 0.353312 1090637
0.086535 0.004516 0.980413 5683169
0.981865 0.503616 0.550886 15020924
0.426397 0.107116 0.713586 8489666
0.239188 0.935817 0.162101 3618731
0.221785 0.825974 0.900220 6635273
0.072917 0.285087 0.805093 13554247
0.494893 0.827013 0.856697 5211989
0.852000 0.699087 0.182486 8387253
0.408411 0.976921 0.357714 7433560
0.942835 0.900449 0.718311 4618850
0.382652 0.438513 0.142562 8124111
0.136826 0.122028 0.069997 1870734
0.375740 0.040965 0.645686 15238099
0.562559 0.590620 0.261709 10526346
0.234409 0.109392 0.225205 2900291
0.644924 0.891390 0.793659 16608380
0.260717 0.070473 0.151296 7351463
0.468675 0.662542 0.251726 15963301
0.314629 0.156828 0.014253 9817533
0.831803 0.975178 0.038922 602455
0.989091 0.865429 0.302539 9159185
0.583069 0.469529 0.818494 5887468
0.854689 0.988086 0.232088 10507118
0.467926 0.885556 0.402037 10360172
0.171231 0.668334 0.101769 4617633
0.566604 0.085189 0.926326 7954552
0.220836 0.379068 0.172395 6281644
0.716917 0.998526 0.375433 3956123
0.651356 0.634653 0.039573 6058297
0.516937 0.199765 0.942245 4237930
0.722011 0.688908 0.887494 16255978
0.731636 0.870537 0.340930 2053354
0.306443 0.557673 0.990842 1346506
0.305627 0.061021 0.990208 2391254
0.122962 0.182196 0.805371 12361307
0.604836 0.128284 0.944215 15739101
0.081513 0.530283 0.902677 5344987
0.388199 0.092020 0.878299 15486035
0.121917 0.429250 0.599834 6986755
0.928142 0.830686 0.560354 4722628
0.551367 0.952132 0.131521 14576227
0.327909 0.097602 0.988696 146312
0.934407 0.355958 0.976343 353648
0.144593 0.019185 0.557963 13611776
