# .PCD v0.7 - Point Cloud Data
VERSION 0.7
FIELDS x y z rgb
SIZE 4 4 4 4
TYPE F F F F
COUNT 1 1 1 1
WIDTH 1000
HEIGHT 1
POINTS 1000
DATA ascii
0.367937 0.947474 0.128109 4087702
0.482608 0.398539 0.372375 7735772
0.185968 0.778299 0.371019 16175541
0.689918 0.744165 0.618066 3180295
0.820318 0.813544 0.501302 9791414
0.107957 0.923158 0.299080 2768264
0.999145 0.368467 0.584318 15332242
0.735027 0.463478 0.138009 4806724
0.555398 0.127112 0.077204 6016748
0.887636 0.871907 0.161968 4861722
0.264741 0.881477 0.352154 15998577
0.686049 0.826354 0.643805 6384926
0.271322 0.053145 0.742407 2498640
0.066232 0.008899 0.994261 7687113
0.345253 0.516743 0.446466 12139472
0.695511 0.562736 0.859164 11605269
0.137446 0.230653 0.161046 10731714
0.735701 0.807597 0.068744 8142638
0.514192 0.709076 0.805324 10301006
0.362962 0.039682 0.160184 8635811
0.919238 0.562649 0.052531 3121060
0.407820 0.116065 0.267484 5968094
0.522195 0.992830 0.327580 14979030
0.433342 0.472823 0.487157 12495237
0.748818 0.768533 0.614164 10047272
0.507465 0.622929 0.553722 11556227
0.722154 0.146294 0.884492 11402914
0.741849 0.517259 0.281234 34090
0.584181 0.583499 0.561223 9204782
0.204990 0.275332 0.984749 14395312
0.440566 0.914395 0.232459 14014706
0.611436 0.984464 0.681375 3209087
0.039974 0.586074 0.921030 11282040
0.700213 0.672627 0.221128 12838748
0.885212 0.496436 0.444532 6704321
0.999400 0.622024 0.481634 9827963
0.661039 0.702561 0.117018 13741184
0.034327 0.138655 0.112011 14229614
0.416284 0.319429 0.379712 4458288
0.467390 0.203630 0.587033 7399434
0.621354 0.748189 0.404620 15254195
0.662353 0.287391 0.251241 14474112
0.513067 0.741896 0.888509 2506736
0.109667 0.764415 0.930998 5930360
0.980147 0.892364 0.765892 12687115
0.276229 0.466029 0.267403 15307735
0.474531 0.881039 0.458069 4784398
0.446733 0.252359 0.051586 13096016
0.955014 0.424102 0.873082 7233566
0.531826 0.586475 0.782244 4758663
0.854178 0.119081 0.572327 3093452
0.979821 0.405390 0.422153 2446855
0.659322 0.795584 0.352256 16536586
0.103988 0.532450 0.942112 3931444
0.481271 0.247114 0.905168 2835866
0.503167 0.239760 0.332071 6965310
0.290131 0.353722 0.042797 5334814
0.967351 0.935551 0.149903 5959572
0.753956 0.859677 0.405788 4756288
0.434185 0.639194 0.230735 5469208
0.169980 0.454419 0.316443 5246034
0.770536 0.560280 0.037344 7964242
0.531427 0.613598 0.520734 2042480
0.299869 0.951864 0.955515 7791875
0.532906 0.068264 0.697845 2092971
0.077748 0.563216 0.212550 4418141
0.767989 0.246941 0.257895 11616407
0.007219 0.701687 0.585890 13256983
0.571722 0.167898 0.426375 16612362
0.116918 0.331460 0.302392 7183086
0.275958 0.858260 0.525745 13087484
0.517941 0.320351 0.264037 7721400
0.873527 0.629607 0.669160 8356837
0.633494 0.607117 0.220819 843735
0.200036 0.823056 0.946531 13598059
0.052352 0.951492 0.775099 7404972
0.686536 0.402226 0.360741 12802073
0.709923 0.258289 0.966588 2671705
0.130238 0.909088 0.657241 8342758
0.064190 0.364649 0.598319 14910927
0.037700 0.679412 0.466617 5884691
0.878080 0.042916 0.619701 14715395
0.410521 0.170913 0.509330 16243259
0.060755 0.279367 0.656806 7855486
0.851360 0.357734 0.570897 2620383
0.608239 0.997675 0.171929 6683581
0.278017 0.934010 0.575716 6090539
0.621761 0.861373 0.149374 13578400
0.945992 0.168762 0.558676 757535
0.407677 0.403250 0.304821 14809132
0.031059 0.516561 0.615127 16201739
0.249360 0.295062 0.892270 8929324
0.213181 0.897088 0.838198 9851591
0.436907 0.088905 0.842660 2050967
0.806563 0.285492 0.424045 11356841
0.237418 0.668550 0.976925 6240163
0.884842 0.935395 0.910409 10054276
0.614815 0.083190 0.749901 3189242
0.096962 0.149936 0.933238 5377827
0.508292 0.480651 0.622828 1487612
0.554791 0.242771 0.609447 9227636
0.199926 0.401400 0.713198 9466112
0.331344 0.502925 0.273547 9603558
0.533266 0.574109 0.668613 9188257
0.063620 0.038858 0.875217 13527267
0.065750 0.967520 0.390902 1692178
0.429175 0.897318 0.561101 14925222
0.808124 0.906092 0.132036 4146584
0.861469 0.660601 0.484645 9976374
0.300485 0.884878 0.216433 6268716
0.944009 0.213911 0.285682 16142337
0.706913 0.777544 0.601980 14186990
0.659133 0.497065 0.304845 12696259
0.522478 0.742566 0.080202 8396102
0.410916 0.858225 0.710271 14924084
0.692608 0.117399 0.210575 8533014
0.348039 0.630988 0.844219 6264154
0.195210 0.264335 0.908568 5551158
0.067787 0.046630 0.758407 6103643
0.713804 0.792587 0.734645 458345
0.159118 0.473450 0.509376 1763901
0.299737 0.256735 0.205159 7874933
0.427928 0.208212 0.043134 9267043
0.291981 0.253355 0.472917 3961137
0.756507 0.224961 0.104576 5197180
0.629451 0.530277 0.048525 5332180
0.706778 0.912363 0.312599 5292961
0.173299 0.667891 0.244453 16521696
0.292742 0.296904 0.979435 7130069
0.505928 0.605418 0.594571 10621358
0.880773 0.253064 0.345409 5788253
0.468033 0.332886 0.359757 16546376
0.258172 0.877450 0.231199 7954343
0.407830 0.566879 0.486338 4604191
0.331282 0.281138 0.831976 6690475
0.245170 0.662482 0.814216 9998974
0.705922 0.409679 0.683853 2204315
0.148316 0.176368 0.442396 16002160
0.346457 0.365440 0.239059 930209
0.719870 0.378947 0.020643 7088836
0.989971 0.136974 0.802439 119391
0.396170 0.334420 0.338620 12264692
0.168239 0.396608 0.016990 8013051
0.275369 0.844306 0.948787 10802939
0.378745 0.733788 0.770861 16570762
0.084495 0.085480 0.262540 6682349
0.696643 0.250570 0.767631 14732875
0.122912 0.359527 0.763657 15618496
0.055685 0.051038 0.566348 5430976
0.479304 0.398013 0.128109 3659843
0.294919 0.745783 0.208739 5401496
0.306083 0.149136 0.960992 16018989
0.287930 0.587043 0.514689 12411809
0.555226 0.960135 0.391362 13231631
0.759024 0.232802 0.644248 672820
0.978678 0.210180 0.735670 4751228
0.175606 0.321764 0.577715 11757629
0.071011 0.838429 0.025558 4113640
0.969176 0.043031 0.231988 7719433
0.448138 0.506888 0.047751 14123180
0.361438 0.210671 0.453350 12282192
0.789448 0.307400 0.373122 2960744
0.646742 0.828403 0.954163 11035870
0.171488 0.935421 0.237644 10514756
0.178472 0.710068 0.723952 7469027
0.204084 0.917734 0.202249 5078174
0.016905 0.708741 0.187984 13216787
0.404489 0.717999 0.029612 714086
0.649051 0.327172 0.384347 14564182
0.461321 0.817379 0.274758 4355627
0.469490 0.485348 0.655592 15919214
0.343830 0.097945 0.652894 13210681
0.817604 0.023828 0.848515 6929541
0.960563 0.706842 0.100869 9503328
0.352299 0.809128 0.127902 6998072
0.564052 0.547047 0.672814 10429667
0.368126 0.634109 0.919080 2696197
0.216966 0.154163 0.824677 5799652
0.692689 0.801921 0.975315 7580799
0.626222 0.014994 0.114595 15358718
0.761472 0.675751 0.745895 5643717
0.462083 0.047708 0.682754 9536144
0.234833 0.550440 0.452768 9508081
0.509294 0.482468 0.641219 4169578
0.425562 0.609280 0.323107 6186561
0.498074 0.506713 0.138249 3125948
0.326667 0.619994 0.614535 13945222
0.217822 0.321945 0.377930 16078023
0.535013 0.938588 0.696866 11077723
0.485609 0.290449 0.847490 16627794
0.037307 0.938083 0.708485 1436508
0.883575 0.466029 0.030219 4313912
0.845552 0.007340 0.647748 16648336
0.434593 0.535199 0.528736 4238325
0.703738 0.595721 0.440430 7453944
0.776138 0.799032 0.319047 8307553
0.508319 0.421100 0.181045 9352146
0.085722 0.712122 0.695901 9532031
0.640451 0.733893 0.956731 7081658
0.641348 0.635420 0.509661 7859569
0.667113 0.774520 0.544597 10331166
0.027205 0.886064 0.842806 12236414
0.555517 0.010837 0.636753 8798850
0.040327 0.170549 0.787631 6374068
0.524015 0.575961 0.923779 11897219
0.562391 0.807018 0.295123 5353270
0.428727 0.661765 0.141145 13913540
0.093906 0.030977 0.529597 10129575
0.905231 0.604398 0.571796 8680232
0.659526 0.271294 0.576637 15624932
0.934615 0.669447 0.582273 6262812
0.528654 0.886045 0.767377 8933411
0.694817 0.219534 0.965732 1460808
0.987229 0.125111 0.868670 15040985
0.645300 0.371843 0.880459 9765996
0.393476 0.159835 0.845448 2754395
0.489729 0.398242 0.630285 12004742
0.791071 0.188788 0.395607 13337954
0.329900 0.332886 0.572865 6454795
0.637979 0.974167 0.914278 14612296
0.709021 0.547354 0.286957 3055372
0.678663 0.373432 0.692223 17726
0.625232 0.406252 0.296099 1956857
0.819302 0.455958 0.745938 2077682
0.885047 0.426731 0.073132 9231978
0.544842 0.113173 0.039975 11226299
0.233720 0.009890 0.769697 7173459
0.736615 0.650801 0.529129 4884240
0.413954 0.665376 0.997039 2238279
0.450231 0.550340 0.521184 9664513
0.685068 0.830744 0.190998 15054110
0.248764 0.608405 0.731607 4099044
0.766953 0.904362 0.784176 6429791
0.326690 0.789825 0.570254 11212228
0.189140 0.404912 0.297295 1043551
0.461522 0.758422 0.685718 7009189
0.210618 0.589580 0.547018 15745421
0.628148 0.286032 0.609175 1474956
0.096969 0.395461 0.281319 2133546
0.080845 0.626311 0.059989 1604340
0.916385 0.300521 0.620100 6893124
0.969433 0.988965 0.764840 6334444
0.608708 0.438504 0.359587 6394275
0.297154 0.215403 0.705399 8923787
0.485586 0.787949 0.445602 6443028
0.714941 0.803888 0.001819 4401555
0.297684 0.295381 0.293828 14125365
0.824696 0.880873 0.947386 290592
0.519221 0.364272 0.102226 8063973
0.170047 0.540782 0.630600 1450643
0.227406 0.834111 0.491619 6557393
0.443171 0.663592 0.078017 7831733
0.217418 0.231569 0.518732 13595340
0.503470 0.873196 0.714961 14878240
0.373043 0.606311 0.697492 6318308
0.709845 0.827728 0.725177 12624184
0.725763 0.163534 0.047633 16541095
0.542888 0.873123 0.619039 15512090
0.269042 0.028852 0.314851 2100897
0.980275 0.893458 0.500484 1260556
0.074852 0.385082 0.899285 9557959
0.949021 0.429295 0.542057 10605917
0.582966 0.765544 0.496064 3085483
0.841554 0.108169 0.853856 2272402
0.312256 0.957046 0.832467 13639671
0.681161 0.010532 0.398724 9625486
0.822491 0.548258 0.244429 544898
0.043685 0.457556 0.754833 8400814
0.574640 0.310253 0.412793 15479048
0.733533 0.398326 0.522675 16543815
0.683611 0.813656 0.306179 437019
0.335466 0.601110 0.348502 14787028
0.094754 0.977146 0.662840 208297
0.815170 0.909678 0.356121 6166779
0.195029 0.168765 0.799167 9938032
0.758591 0.498637 0.939407 8419971
0.577105 0.009394 0.973801 3661483
0.470925 0.002067 0.288367 8053072
0.099077 0.279321 0.218417 13998734
0.691723 0.826581 0.440123 11789523
0.596047 0.744668 0.967546 5619837
0.439625 0.474374 0.538885 2514529
0.441867 0.705370 0.210448 3105583
0.755796 0.085432 0.009845 5913803
0.369173 0.813530 0.616421 13427704
0.722823 0.091814 0.884292 7005921
0.988208 0.161848 0.972297 142683
0.785770 0.536188 0.754645 13091683
0.772902 0.200299 0.818733 11455513
0.004522 0.450186 0.655469 7219267
0.747616 0.706155 0.974816 16365798
0.184765 0.074230 0.588412 12997069
0.500447 0.969251 0.087707 7080737
0.402092 0.200658 0.270790 3118184
0.753619 0.606813 0.785166 1849256
0.752698 0.554544 0.969345 3193286
0.901358 0.205574 0.678820 16472349
0.478164 0.303842 0.013914 11547141
0.668492 0.083374 0.029324 1549080
0.338721 0.489888 0.787017 4559539
0.631193 0.458867 0.766917 3647502
0.141815 0.676656 0.935338 3878069
0.679455 0.768963 0.511185 2472271
0.905798 0.998352 0.195611 7564325
0.313400 0.453532 0.576842 10005268
0.906451 0.826536 0.292708 5765933
0.719836 0.762588 0.902102 1658117
0.481876 0.968559 0.779704 9391033
0.655611 0.934045 0.379286 15143747
0.465692 0.829833 0.226388 5155146
0.921742 0.491491 0.242535 10983338
0.601018 0.523028 0.170793 12506482
0.275000 0.387353 0.596969 5589481
0.115829 0.190401 0.117866 7903202
0.659964 0.374636 0.464747 12126208
0.338470 0.074046 0.830706 6082628
0.197974 0.905643 0.219968 5777930
0.243155 0.812165 0.768015 13803497
0.724613 0.340308 0.501746 2353322
0.265318 0.981645 0.660034 351339
0.175327 0.016566 0.025585 12151853
0.692440 0.871277 0.146861 13130357
0.209597 0.533416 0.279367 77045
0.755459 0.581991 0.177495 2096293
0.354838 0.202954 0.152006 13752818
0.135790 0.877394 0.495416 7721748
0.378645 0.069575 0.206776 6617532
0.366358 0.210557 0.814418 13209933
0.905333 0.064639 0.854253 3875208
0.794083 0.146249 0.055364 402771
0.414071 0.752632 0.546882 10204527
0.706744 0.366082 0.780106 271905
0.454571 0.820539 0.496791 6580723
0.734522 0.399097 0.251581 2668362
0.551014 0.845859 0.629792 14009284
0.018633 0.688166 0.339472 9547666
0.490778 0.732785 0.649779 7370417
0.026851 0.443671 0.397993 12918868
0.510641 0.811945 0.192947 4836285
0.733680 0.660957 0.781670 1416773
0.885545 0.759399 0.133478 3642918
0.032260 0.177572 0.362684 1687569
0.797717 0.744936 0.058024 11100085
0.570222 0.319696 0.866129 15688789
0.907484 0.611792 0.030287 6211031
0.188689 0.774368 0.643365 11154401
0.800672 0.307125 0.648201 16156878
0.844637 0.971930 0.841039 10539742
0.375728 0.324482 0.524348 3644960
0.859071 0.449129 0.663646 11898032
0.017855 0.075695 0.410375 6834047
0.524369 0.476868 0.858183 15551455
0.275811 0.754678 0.689720 13429607
0.173221 0.318371 0.807369 376144
0.753551 0.274169 0.711332 4128941
0.191377 0.011409 0.841974 8152855
0.788622 0.935231 0.024184 2821491
0.384762 0.757754 0.037682 11439211
0.772120 0.669310 0.147403 1101216
0.634841 0.802822 0.979648 9288423
0.154495 0.868190 0.437779 16567166
0.724361 0.585780 0.084650 5267025
0.821347 0.221032 0.880006 10318887
0.112705 0.765248 0.220671 13982132
0.488577 0.092732 0.405967 5533572
0.815321 0.730434 0.099031 9312923
0.063990 0.676188 0.690142 4993313
0.122031 0.815982 0.825650 3644531
0.906607 0.445332 0.371000 11047653
0.218559 0.077117 0.107444 4776774
0.060392 0.835594 0.007482 13429856
0.968581 0.010898 0.239229 7015728
0.732496 0.087424 0.211915 13795163
0.125032 0.318336 0.117318 3307840
0.591799 0.374661 0.226438 7356350
0.217837 0.701714 0.258891 13162724
0.777252 0.091827 0.861054 3842575
0.196401 0.397985 0.515493 1343943
0.777954 0.534514 0.846190 7679691
0.849928 0.882557 0.195140 11362135
0.430371 0.015682 0.182011 7955288
0.439677 0.996792 0.856041 5342487
0.736441 0.718500 0.918914 15744999
0.042062 0.891644 0.532802 12264084
0.886211 0.120026 0.185509 8734534
0.456795 0.760744 0.674057 6829106
0.633500 0.334368 0.296440 10886353
0.247935 0.747973 0.359300 212571
0.321117 0.330558 0.942887 2189977
0.941266 0.397626 0.215593 9433036
0.689784 0.047719 0.391825 11364996
0.473616 0.672876 0.832332 12408992
0.523396 0.461766 0.493405 4178559
0.614363 0.366525 0.905648 16400344
0.175790 0.918514 0.159758 3495117
0.159301 0.025835 0.132728 14149205
0.810330 0.935107 0.567731 14464505
0.707427 0.385531 0.194908 16091403
0.209024 0.716560 0.390621 12165139
0.437564 0.199906 0.389872 3063339
0.243733 0.539602 0.738817 4131853
0.569764 0.176237 0.655222 9319260
0.930116 0.157918 0.750774 4073538
0.412526 0.520830 0.835070 10596779
0.062885 0.191751 0.689838 11394132
0.235697 0.663412 0.055461 387346
0.808139 0.289956 0.913226 5383310
0.411720 0.863911 0.444045 14991222
0.032574 0.448021 0.878369 3910455
0.577443 0.133334 0.247658 16309483
0.656334 0.912518 0.104325 13950909
0.182255 0.386366 0.424806 6785689
0.068899 0.974969 0.410263 10825448
0.894511 0.441637 0.622059 15939103
0.170525 0.057311 0.477841 9306492
0.960061 0.570941 0.093474 580079
0.127544 0.661433 0.234353 1347655
0.660054 0.374792 0.493212 4853670
0.397812 0.539061 0.762535 9748256
0.150489 0.708991 0.742413 9518753
0.026364 0.902714 0.641104 4567230
0.096994 0.037635 0.774224 8088591
0.666841 0.098080 0.189428 5945040
0.100769 0.761812 0.890918 6451295
0.047302 0.577155 0.943300 14343925
0.537563 0.291276 0.828594 2881653
0.544341 0.509651 0.744545 6725787
0.107102 0.142431 0.509951 4237070
0.724201 0.719866 0.493775 1499913
0.566931 0.934987 0.557803 2690773
0.084285 0.607001 0.548432 5561767
0.519980 0.568668 0.677016 1406957
0.944340 0.982020 0.810198 95617
0.019432 0.502377 0.152317 13939472
0.651065 0.979052 0.767874 8664937
0.955739 0.928286 0.778759 9976370
0.146104 0.821016 0.818892 13610733
0.849670 0.619914 0.324139 5905832
0.264347 0.869707 0.722881 736864
0.244087 0.334854 0.069523 16586383
0.167466 0.312367 0.859119 5314526
0.612135 0.888797 0.559320 464662
0.692340 0.744085 0.965749 14736803
0.321391 0.530003 0.431206 412893
0.357218 0.752003 0.445342 7775366
0.998585 0.160389 0.112782 12434875
0.067751 0.104286 0.546618 9813386
0.240335 0.674129 0.349072 8693468
0.985664 0.988576 0.842566 7137040
0.244511 0.989411 0.602004 301848
0.419368 0.416797 0.642281 16483202
0.198647 0.168651 0.686979 15339199
0.842801 0.278459 0.272287 11794150
0.956621 0.334469 0.681570 3005677
0.502029 0.144224 0.365569 3879096
0.738344 0.666377 0.235580 10821778
0.010378 0.121546 0.391910 15213328
0.591585 0.824824 0.733276 504757
0.075719 0.554845 0.629147 4508530
0.155642 0.288128 0.352305 6483384
0.086854 0.927129 0.891982 16112872
0.513325 0.997446 0.494054 11790732
0.037194 0.854846 0.576588 9423401
0.357820 0.920916 0.796835 1449037
0.473415 0.302216 0.984409 8823405
0.086059 0.626359 0.090603 4786273
0.964879 0.002498 0.542126 6421713
0.072758 0.695782 0.406177 12025518
0.286529 0.478457 0.025052 4036033
0.794466 0.318652 0.809268 9040473
0.639492 0.677242 0.467590 5874352
0.045056 0.659887 0.153995 286214
0.752637 0.148251 0.490990 4023417
0.642052 0.166629 0.476829 12292593
0.362808 0.931947 0.973121 1880932
0.916077 0.212892 0.420435 16211313
0.506711 0.081630 0.913822 1884847
0.047393 0.495237 0.025389 9425270
0.266913 0.643007 0.855372 9860643
0.945656 0.191976 0.564414 5964496
0.654537 0.939657 0.058972 14384473
0.725691 0.680632 0.340001 529972
0.084374 0.259575 0.043964 15572138
0.643286 0.304807 0.778965 1630469
0.688390 0.529340 0.681087 13098989
0.136458 0.600244 0.753319 2306743
0.484148 0.902182 0.567506 10641118
0.088563 0.329749 0.269688 10886580
0.638664 0.915412 0.349072 8011588
0.564379 0.592447 0.812539 246236
0.986303 0.254207 0.003015 11931027
0.235179 0.287962 0.539380 12324642
0.012865 0.072761 0.607020 14531274
0.394110 0.057127 0.944526 14792255
0.403290 0.197414 0.913914 5104220
0.559552 0.320220 0.834412 8269643
0.112759 0.372169 0.037515 14928759
0.961980 0.870078 0.843994 10324637
0.162776 0.336430 0.887870 3721128
0.802980 0.238363 0.601986 11204633
0.167536 0.593221 0.753761 7795896
0.310235 0.420003 0.163518 14321944
0.232545 0.598001 0.327921 7787960
0.801332 0.967142 0.795392 4375628
0.453166 0.102429 0.152159 6769527
0.921787 0.157870 0.657491 13555135
0.200501 0.741363 0.360581 5028361
0.716541 0.405802 0.020941 2283085
0.270185 0.406095 0.671218 7477791
0.283125 0.358747 0.991727 7015335
0.212345 0.203930 0.849835 11835274
0.074831 0.145533 0.562428 2094952
0.542029 0.306479 0.443974 4243753
0.632337 0.056834 0.380157 15523447
0.758777 0.370102 0.979082 11851598
0.459065 0.747861 0.034299 7640468
0.727567 0.637383 0.044657 2627774
0.857373 0.991965 0.757560 3587895
0.687036 0.863243 0.877610 7355399
0.913385 0.863624 0.190558 11809153
0.340766 0.160909 0.485993 13591329
0.578292 0.181474 0.877496 9609637
0.731757 0.363181 0.948122 1782214
0.866513 0.942112 0.505236 4035376
0.574102 0.223891 0.420629 13494975
0.626850 0.687452 0.914064 2309467
0.452861 0.913910 0.862939 4382236
0.630062 0.837369 0.899704 10679903
0.068374 0.026203 0.227758 1843888
0.709345 0.846886 0.291024 4225197
0.012213 0.140188 0.613890 7425554
0.165459 0.630101 0.005888 10208813
0.016024 0.026605 0.290423 1429155
0.942228 0.301921 0.507672 13165399
0.327993 0.536745 0.864897 2871055
0.290996 0.304949 0.426074 5544164
0.137936 0.491708 0.423258 6148593
0.226599 0.843439 0.370071 4990499
0.338007 0.778241 0.051900 63371
0.523271 0.725485 0.045559 8098493
0.563524 0.949732 0.792141 10693908
0.271496 0.380201 0.708206 6352842
0.470970 0.350551 0.943934 3284608
0.520255 0.203558 0.663752 14857985
0.894015 0.765016 0.852102 3523408
0.823247 0.122551 0.341578 9466306
0.723598 0.814635 0.556106 12935291
0.128640 0.203801 0.275721 3142874
0.738015 0.144422 0.773351 10576651
0.245112 0.041473 0.217098 12651556
0.413794 0.325396 0.577006 14415992
0.436813 0.600172 0.988676 14974451
0.713482 0.129081 0.126619 6825866
0.927442 0.810310 0.316381 15317400
0.023218 0.886030 0.393334 8927857
0.746791 0.275860 0.146343 16644546
0.679193 0.510784 0.135174 11403470
0.291508 0.584730 0.433648 660633
0.529237 0.561769 0.258889 13714232
0.747377 0.151034 0.643984 13329744
0.262220 0.295453 0.658913 2039864
0.276227 0.055804 0.361773 12460883
0.897415 0.300812 0.732635 11089995
0.442475 0.884893 0.164196 4379237
0.888480 0.969083 0.682018 12372922
0.794739 0.330731 0.765144 9713302
0.136925 0.501369 0.211338 9912819
0.076252 0.797964 0.806334 6083427
0.289422 0.496975 0.042160 12530458
0.336994 0.736154 0.400856 842194
0.205401 0.452979 0.469195 12548714
0.646245 0.883868 0.986934 6936599
0.968644 0.747744 0.092285 12626941
0.274871 0.080475 0.939273 11715201
0.595299 0.835902 0.523487 2029411
0.314339 0.547640 0.109175 12638983
0.672318 0.665722 0.238118 4123699
0.419464 0.851416 0.815713 6015386
0.894703 0.357604 0.589438 5224566
0.922970 0.577538 0.679233 7985582
0.735699 0.994088 0.078955 4080581
0.894879 0.587500 0.252282 4897333
0.253871 0.203326 0.513549 5680957
0.732483 0.193317 0.757899 6358408
0.175460 0.097089 0.601082 221923
0.293649 0.557850 0.896411 15447851
0.159363 0.855178 0.113709 3940022
0.942151 0.252382 0.473034 1109277
0.605415 0.161339 0.530044 7489051
0.451303 0.894837 0.540034 8359072
0.771819 0.392721 0.536003 6884436
0.030202 0.412197 0.069451 5457759
0.441897 0.426047 0.169451 7510475
0.427601 0.225793 0.780298 12486560
0.544337 0.108772 0.454381 13243221
0.189939 0.029479 0.095841 11653872
0.986675 0.784652 0.339195 8336008
0.553414 0.122112 0.391479 9034224
0.613534 0.717910 0.537673 5382568
0.684811 0.078581 0.044531 704622
0.695638 0.019190 0.468716 12768013
0.942992 0.672160 0.783386 219380
0.383764 0.327264 0.208821 435920
0.719379 0.256553 0.380459 4352627
0.987268 0.296882 0.182609 1963064
0.061374 0.142650 0.710921 5150807
0.141557 0.687727 0.797995 2274866
0.864301 0.952961 0.210041 11800483
0.589057 0.296011 0.443290 1990184
0.540030 0.055909 0.692962 13726159
0.196825 0.483050 0.939778 12534141
0.731765 0.922326 0.962052 209378
0.665348 0.568708 0.747939 11417803
0.829585 0.648601 0.486783 15810071
0.043210 0.324724 0.358794 1568508
0.874473 0.010817 0.367158 3940157
0.043203 0.584126 0.720567 12546823
0.382994 0.626726 0.634149 2754321
0.209431 0.413442 0.964611 16591460
0.377959 0.939574 0.614802 14385700
0.954246 0.452831 0.133545 2963185
0.819314 0.178783 0.336263 8251116
0.738214 0.686143 0.797387 4494462
0.568362 0.309767 0.956252 146680
0.025932 0.870396 0.891419 15494765
0.021234 0.138209 0.631855 1037469
0.979254 0.347814 0.668503 3850345
0.769644 0.166622 0.394186 3050589
0.710247 0.251458 0.347378 6024683
0.344671 0.437106 0.174122 3706027
0.990405 0.977878 0.498595 4547213
0.296597 0.189956 0.860713 2489041
0.849870 0.004048 0.323179 342820
0.231520 0.601598 0.092744 2310875
0.257330 0.671127 0.506048 13533955
0.144797 0.225106 0.173412 14415885
0.889705 0.813051 0.859996 15625683
0.415938 0.068496 0.599314 5737356
0.307187 0.468961 0.134393 12722567
0.412410 0.870935 0.607294 6991911
0.311765 0.772657 0.569448 8392503
0.403415 0.593688 0.407418 9344759
0.132955 0.760990 0.247125 8815613
0.120513 0.778168 0.160732 8568350
0.996443 0.797999 0.521640 3490574
0.503566 0.439711 0.738823 2758808
0.401298 0.863483 0.695496 8457330
0.317411 0.927893 0.789864 8881465
0.795092 0.385316 0.501761 10218174
0.097989 0.722792 0.285586 16073857
0.780506 0.456007 0.871761 6342549
0.760348 0.065835 0.941058 908577
0.248630 0.830331 0.841535 1476514
0.153199 0.817276 0.696305 4670780
0.606170 0.824401 0.442115 1876602
0.012891 0.476119 0.319143 7405121
0.068806 0.962211 0.732400 2903072
0.186272 0.593686 0.839892 13640813
0.075115 0.721611 0.049098 12777871
0.584167 0.643444 0.442228 6917614
0.981764 0.903101 0.258375 12955417
0.510054 0.672175 0.933331 14166852
0.151596 0.773927 0.751207 13277333
0.476832 0.902107 0.141797 5497085
0.866414 0.224877 0.965361 14497022
0.552269 0.554384 0.913818 2585977
0.791404 0.583343 0.289906 3548504
0.572261 0.702714 0.315647 13860849
0.704975 0.071925 0.198838 4876858
0.533026 0.056225 0.868089 10487486
0.014232 0.618758 0.602295 961557
0.612500 0.528159 0.128749 2370329
0.158143 0.453796 0.732131 12263717
0.617500 0.787242 0.600297 14564407
0.766710 0.372169 0.250406 13425332
0.958556 0.398131 0.282784 5415565
0.763444 0.883180 0.013337 16470855
0.221462 0.568781 0.364520 2529253
0.953114 0.388678 0.299955 259319
0.690275 0.926447 0.352433 14543392
0.304055 0.604211 0.125306 1453299
0.755184 0.704314 0.307735 100762
0.231577 0.918314 0.493982 5122033
0.414519 0.899238 0.915518 4162307
0.753214 0.567471 0.636339 7946463
0.473247 0.908082 0.251604 7722837
0.004477 0.177396 0.998256 4520725
0.081524 0.188002 0.325512 16539273
0.213988 0.691068 0.523999 4721676
0.760141 0.163042 0.625351 13462254
0.671205 0.319876 0.227724 6939102
0.131878 0.762808 0.363739 7051614
0.841003 0.703104 0.612440 14837175
0.550009 0.555246 0.929633 14704283
0.273785 0.732651 0.696507 10297461
0.270997 0.650824 0.938754 3079092
0.806692 0.933714 0.508234 2062494
0.776684 0.829068 0.728616 15820701
0.207939 0.656977 0.593904 6795604
0.109489 0.977803 0.931536 5588541
0.634376 0.047986 0.749198 12551753
0.620048 0.659814 0.159701 13890238
0.492503 0.009826 0.214599 8289525
0.590331 0.653452 0.098707 8896304
0.141007 0.132315 0.423424 2362659
0.345306 0.518575 0.799107 4431724
0.976821 0.903879 0.451627 937423
0.431690 0.040774 0.199509 12870425
0.735324 0.592133 0.768385 3711647
0.451819 0.064581 0.401202 6674420
0.393542 0.154995 0.659280 6275609
0.721063 0.365856 0.151850 9522919
0.062578 0.388698 0.985437 7011092
0.875250 0.455725 0.799762 1297908
0.806073 0.699812 0.343799 4803675
0.330030 0.710670 0.426501 13650277
0.135143 0.693641 0.199379 5028498
0.589176 0.889264 0.520843 6354365
0.201251 0.723801 0.573934 3356597
0.192063 0.836745 0.563212 3428827
0.957508 0.224172 0.305847 5099468
0.731181 0.510859 0.135024 3598176
0.716767 0.224723 0.805361 14702307
0.313228 0.295400 0.501126 8286524
0.412330 0.043189 0.420179 13831635
0.096106 0.366161 0.897898 9926784
0.341576 0.515217 0.289241 4633259
0.791205 0.070650 0.197741 12937006
0.595517 0.551980 0.649668 8568507
0.870881 0.085721 0.755054 4480552
0.420758 0.906140 0.193870 16017771
0.170401 0.988806 0.698095 2692329
0.417418 0.840169 0.530376 8798360
0.935958 0.588192 0.702697 10482043
0.798848 0.486173 0.057261 14405518
0.337297 0.769707 0.473579 4315871
0.544554 0.206335 0.502076 3986216
0.431449 0.471227 0.064686 3083129
0.499214 0.993002 0.956813 16707729
0.538978 0.491580 0.571252 10795147
0.836000 0.315175 0.235194 9891555
0.168660 0.800965 0.968410 7348948
0.648341 0.211017 0.567258 10834682
0.646505 0.522943 0.151585 5708227
0.599266 0.824178 0.779176 4325880
0.743186 0.998827 0.707679 2813430
0.219416 0.307759 0.498699 10738371
0.643299 0.903103 0.203198 12336058
0.005840 0.661294 0.829151 3116118
0.138876 0.113631 0.425327 1065591
0.739262 0.934970 0.653381 13383512
0.020957 0.995855 0.037395 8874645
0.439754 0.020154 0.270256 4948214
0.073491 0.636742 0.050279 10212553
0.367433 0.806248 0.279435 762752
0.626562 0.823888 0.558732 16498183
0.197453 0.753826 0.786601 1091649
0.664489 0.025095 0.841473 4578889
0.721568 0.130606 0.310204 6223702
0.597863 0.798946 0.245532 9871325
0.183719 0.958443 0.693073 13467159
0.768762 0.174242 0.716822 5145143
0.592320 0.908146 0.521041 10852225
0.944530 0.690015 0.981970 14073963
0.112680 0.962783 0.226123 1586078
0.863138 0.040315 0.768776 5928008
0.516706 0.387613 0.043126 6459677
0.728126 0.708743 0.597948 9543890
0.063335 0.522094 0.678842 2391984
0.436134 0.069906 0.508311 13060011
0.495728 0.086222 0.870155 8758977
0.247404 0.006552 0.311884 237897
0.758964 0.241029 0.697196 7372845
0.173958 0.029544 0.233382 10602922
0.272392 0.211154 0.142973 11586491
0.266684 0.394078 0.991483 15879411
0.509888 0.598848 0.613616 15252171
0.880862 0.738620 0.095900 4663246
0.657388 0.041034 0.752491 6816900
0.603538 0.267603 0.716418 2867620
0.558869 0.632219 0.606593 933530
0.333522 0.791200 0.678034 16316063
0.724037 0.138612 0.294981 2178937
0.078770 0.791180 0.413263 681731
0.647564 0.875213 0.571543 6542329
0.849491 0.765876 0.957543 13024342
0.836465 0.447222 0.840789 12596260
0.722311 0.981233 0.355571 58266
0.466157 0.137198 0.104969 5197661
0.128521 0.904974 0.376077 15515521
0.769827 0.237972 0.097519 14930071
0.777155 0.020993 0.224505 12134197
0.750414 0.152414 0.488014 296380
0.177540 0.464086 0.017090 6524757
0.719286 0.420199 0.233477 7592149
0.959288 0.826931 0.923537 1826619
0.641637 0.747253 0.276100 3854349
0.509124 0.600146 0.191205 6751898
0.233367 0.909402 0.579670 2556411
0.914753 0.983356 0.701894 5496062
0.670698 0.796876 0.011149 3847516
0.909244 0.545974 0.347178 1343661
0.239525 0.245971 0.526872 9825383
0.278133 0.264144 0.585231 14803765
0.769962 0.656163 0.524138 6000548
0.277122 0.065761 0.192073 14287889
0.281591 0.146685 0.456002 10123506
0.825585 0.037640 0.913327 4027196
0.258748 0.585744 0.114367 11070053
0.865200 0.639837 0.556557 1155626
0.696973 0.067443 0.555544 3304764
0.658523 0.761215 0.561311 13160961
0.668963 0.163726 0.367144 1903895
0.299640 0.129182 0.018093 5252260
0.959379 0.546123 0.774019 15280432
0.552399 0.597035 0.033165 9716445
0.945357 0.463371 0.880268 2454034
0.603722 0.532845 0.386248 15177858
0.859509 0.706097 0.868758 188053
0.969183 0.103540 0.572928 10753960
0.980479 0.339485 0.103194 16032020
0.405138 0.882730 0.223729 13800685
0.433344 0.534338 0.207544 3163593
0.190867 0.494101 0.216585 3128072
0.334270 0.613997 0.320131 6070042
0.467112 0.087113 0.908179 11078874
0.563442 0.198508 0.839553 13664538
0.631751 0.026517 0.247466 5672523
0.183342 0.878185 0.496775 5450571
0.955380 0.257943 0.641912 4132704
0.229818 0.483336 0.752643 9782944
0.840949 0.545798 0.937377 11697266
0.991866 0.213182 0.777017 8439953
0.002857 0.047019 0.339776 15847812
0.702695 0.178171 0.785371 8404552
0.596933 0.940788 0.656581 3630990
0.619357 0.766329 0.821996 6490702
0.691389 0.621215 0.250320 9171833
0.936627 0.596861 0.874939 2098693
0.394829 0.582494 0.382955 5649525
0.555790 0.136144 0.306669 3451717
0.188482 0.684061 0.965062 9484574
0.181126 0.531958 0.707603 15951620
0.284916 0.658733 0.642718 8901206
0.395693 0.905668 0.007376 1777274
0.675732 0.391257 0.733957 11479347
0.704743 0.934968 0.927846 14216565
0.566958 0.291956 0.667775 10542392
0.248862 0.967125 0.121992 11510693
0.348291 0.694258 0.516825 9549703
0.207694 0.619937 0.667307 9139671
0.781524 0.481481 0.210752 6880347
0.567641 0.387757 0.951276 2913183
0.073696 0.152958 0.986778 15307089
0.770349 0.813254 0.963143 7279074
0.320793 0.643205 0.483748 4891375
0.058874 0.179745 0.720493 16687535
0.852870 0.703797 0.842514 1790602
0.526529 0.428289 0.509313 16096335
0.886135 0.211560 0.819292 10993732
0.518255 0.093830 0.313378 4498116
0.738837 0.732945 0.478323 1602567
0.921996 0.003038 0.156166 3232069
0.137562 0.225616 0.598366 14714274
0.608857 0.531183 0.871118 8907293
0.220582 0.974570 0.331859 15826113
0.036125 0.079618 0.661755 2900923
0.786111 0.837279 0.169321 15960952
0.363439 0.312186 0.649966 5297120
0.551319 0.154530 0.591989 12326474
0.129119 0.714223 0.484221 7260667
0.049666 0.868902 0.762364 12126645
0.363680 0.118394 0.004301 10097295
0.415578 0.252971 0.491106 3900341
0.655734 0.136874 0.529178 13042153
0.141931 0.385895 0.204414 7284562
0.471783 0.116690 0.445695 12241110
0.627798 0.893389 0.392578 1166442
0.939593 0.416264 0.439381 1613632
0.425921 0.893769 0.195873 11181181
0.436363 0.586729 0.099221 7809191
0.399411 0.149158 0.181611 6185339
0.624484 0.452067 0.886419 13033564
0.859303 0.948608 0.428804 8062411
0.202259 0.569653 0.832889 15067556
0.126518 0.227866 0.673482 779645
0.182288 0.856347 0.753263 13869862
0.768784 0.170814 0.832853 11204977
0.491246 0.538815 0.008344 9470448
0.999924 0.825290 0.071846 6412600
0.062533 0.679735 0.493554 10271203
0.850144 0.814320 0.047741 4920690
0.767378 0.689140 0.949916 2452932
0.048629 0.969215 0.620153 4449146
0.262475 0.681992 0.556901 3891872
0.963495 0.745389 0.945432 4994413
0.152667 0.391503 0.491849 2108234
0.590413 0.885917 0.194375 4169987
0.852775 0.494835 0.359154 4032875
0.666325 0.974262 0.080026 14794842
0.065588 0.089271 0.257251 10913477
0.480856 0.169592 0.197643 1632223
0.968435 0.663698 0.883670 9853212
0.101770 0.728060 0.009531 2102466
0.104471 0.972855 0.533698 10675168
0.787439 0.325318 0.491376 323776
0.553385 0.150442 0.700817 8575759
0.849155 0.442735 0.626155 1901037
0.482955 0.476612 0.883602 12156356
0.267663 0.775981 0.383058 3704173
0.531003 0.098965 0.956222 2650050
0.977481 0.181482 0.936881 12360324
0.701626 0.390573 0.385530 3406384
0.089253 0.210776 0.560470 3808054
0.640258 0.770854 0.250203 10649127
0.594273 0.323151 0.789412 14511084
0.430397 0.075095 0.421910 5754440
0.187354 0.956966 0.987918 10370259
0.157492 0.836369 0.477716 11110250
0.964654 0.193664 0.832103 3871
0.612217 0.824978 0.980669 7480359
0.899675 0.985978 0.653037 6079050
0.227593 0.322173 0.508878 13191328
0.509701 0.416712 0.491758 9314889
0.265867 0.680181 0.860595 13805672
0.492675 0.369070 0.790185 7924905
0.060193 0.410471 0.713225 2513673
0.481101 0.003826 0.412844 8577717
0.361471 0.081560 0.742663 4459215
0.925543 0.195091 0.388750 16171177
0.572356 0.139624 0.619342 13926366
0.011860 0.134503 0.832019 5106106
0.982647 0.711892 0.062477 8904332
0.856734 0.156147 0.827342 905606
0.488398 0.664344 0.168038 11463565
0.805138 0.391740 0.754111 10087594
0.055761 0.253169 0.592143 16143751
0.624542 0.657702 0.027923 4997197
0.043956 0.507417 0.556429 4104174
0.361190 0.279455 0.551769 13844793
0.256178 0.641017 0.858979 6141091
0.976892 0.802497 0.078231 13471384
0.088790 0.411728 0.132888 2912681
0.705028 0.806791 0.547001 1727347
0.210544 0.308065 0.446398 8765014
0.502246 0.860685 0.995710 5481736
0.763807 0.686111 0.168914 7018597
0.938814 0.603445 0.206786 1564760
0.392388 0.325820 0.408589 6250647
0.950852 0.376755 0.200259 8899787
0.030589 0.725731 0.012410 3793258
0.284962 0.472628 0.369790 716570
0.528416 0.001373 0.349898 8061488
0.519154 0.445237 0.894384 14697752
0.306446 0.717458 0.851555 944102
0.620208 0.049548 0.214965 13341641
0.224407 0.846827 0.894726 15554496
0.647551 0.559100 0.570582 1159576
0.699407 0.696667 0.936396 980037
0.282582 0.038695 0.866355 7367749
0.603579 0.406921 0.317459 8269102
0.435721 0.473728 0.915250 12028163
0.485193 0.495219 0.343883 10570912
0.034084 0.618864 0.948866 8231590
0.991705 0.971615 0.560759 15725511
0.402858 0.243930 0.112000 16357584
0.877447 0.121077 0.373715 5844242
0.235913 0.849622 0.060967 3583754
0.401130 0.346311 0.258053 12676701
0.706984 0.613086 0.572653 271344
0.384231 0.294771 0.407945 11657633
0.263009 0.667668 0.917602 15014097
0.682553 0.064958 0.400143 13541323
0.166482 0.731301 0.368335 816106
0.924760 0.252465 0.640036 15875218
0.232789 0.764103 0.232254 16063934
0.611949 0.157132 0.974758 2687350
0.321202 0.907864 0.974216 7195242
0.074520 0.700119 0.243555 9229158
0.377868 0.641482 0.775448 3535168
0.864619 0.304018 0.646762 9789308
0.604414 0.972565 0.789157 5714101
0.700575 0.085891 0.468256 1706065
0.446881 0.522798 0.500810 7208513
0.081519 0.746203 0.733447 1147382
0.313940 0.032287 0.960322 11597868
0.763380 0.123441 0.893253 14904654
0.795749 0.198662 0.317814 12413893
0.209070 0.046412 0.553403 1304413
0.119365 0.124137 0.563807 3123315
0.851013 0.345469 0.296481 260696
0.488895 0.316203 0.535069 2401609
0.094587 0.319331 0.033508 16344749
0.703412 0.684988 0.408644 13755655
0.020518 0.813848 0.309565 9510879
0.437686 0.720536 0.431205 15247915
0.436941 0.411333 0.651073 13665857
0.196433 0.760056 0.933674 13852660
0.298653 0.529392 0.802427 15778574
0.662768 0.632988 0.171311 14155103
